 ncols         175
 nrows         32
 xllcorner     0
 xllcorner     0
 cellsize      10.000000
 NODATA_value -99999
2441.800000      2445.800000      2450.200000      2455.000000      2459.400000      2463.200000      2466.800000      2470.000000      2473.600000      2477.000000      2480.200000      2483.400000      2487.000000      2490.200000      2493.600000      2497.000000      2500.200000      2503.800000      2507.400000      2510.800000      2513.800000      2516.600000      2519.400000      2521.800000      2524.600000      2527.800000      2531.000000      2533.800000      2537.000000      2539.800000      2542.600000      2545.800000      2548.600000      2551.400000      2554.200000      2556.800000      2559.200000      2561.600000      2564.000000      2566.600000      2569.000000      2571.000000      2573.400000      2575.800000      2578.200000      2580.400000      2582.400000      2584.000000      2586.000000      2587.600000      2588.800000      2590.000000      2590.400000      2590.400000      2590.400000      2590.400000      2590.400000      2590.400000      2590.400000      2590.400000      2590.400000      2590.400000      2590.000000      2590.000000      2590.000000      2590.000000      2590.000000      2590.000000      2590.400000      2590.600000      2590.400000      2590.000000      2589.600000      2589.200000      2588.800000      2588.400000      2588.000000      2586.800000      2586.800000      2586.200000      2585.400000      2585.000000      2575.840000      2575.440000      2569.470000      2562.980000      2561.550000      2530.190000      2509.450000      2485.870000      2456.950000      2425.510000      2411.060000      2384.960000      2363.540000      2348.520000      2335.200000      2330.620000      2317.020000      2308.220000      2303.240000      2297.280000      2291.330000      2286.240000      2280.330000      2273.570000      2266.790000      2263.470000      2257.580000      2252.230000      2247.900000      2244.040000      2240.450000      2236.340000      2236.730000      2243.850000      2253.240000      2252.830000      2251.420000      2253.240000      2258.820000      2264.950000      2263.390000      2259.160000      2256.930000      2254.220000      2249.030000      2244.490000      2248.250000      2251.200000      2252.890000      2254.140000      2257.650000      2258.680000      2256.620000      2250.170000      2242.430000      2246.550000      2249.360000      2255.040000      2268.520000      2286.940000      2288.230000      2293.520000      2300.080000      2303.970000      2303.910000      2301.800000      2305.090000      2309.980000      2313.900000      2315.210000      2321.620000      2325.220000      2330.840000      2339.920000      2350.460000      2358.650000      2363.190000      2367.320000      2372.690000      2379.710000      2391.610000      2397.410000      2404.090000      2413.770000      2425.580000      2431.040000      2442.090000      2455.450000      2466.020000      2471.490000      2478.650000      2485.880000      2491.450000
2442.600000      2446.600000      2451.000000      2455.400000      2459.800000      2463.800000      2467.600000      2470.800000      2474.000000      2477.400000      2480.600000      2483.800000      2487.400000      2491.000000      2494.400000      2498.000000      2501.400000      2505.000000      2508.600000      2512.000000      2515.200000      2518.200000      2521.000000      2523.800000      2526.600000      2529.800000      2533.000000      2535.800000      2538.600000      2541.400000      2543.800000      2546.600000      2549.400000      2552.200000      2555.000000      2557.800000      2560.400000      2562.800000      2565.200000      2567.800000      2570.600000      2573.000000      2575.400000      2577.800000      2580.200000      2582.600000      2584.800000      2586.400000      2588.000000      2589.600000      2590.800000      2592.000000      2592.400000      2592.800000      2592.800000      2592.800000      2592.800000      2592.800000      2592.800000      2592.800000      2592.800000      2592.800000      2592.400000      2592.000000      2592.000000      2592.000000      2592.000000      2592.000000      2592.000000      2592.200000      2592.200000      2592.000000      2591.600000      2591.200000      2590.800000      2590.400000      2590.000000      2588.800000      2587.600000      2587.000000      2585.800000      2585.000000      2575.840000      2566.690000      2560.710000      2549.160000      2542.670000      2511.310000      2479.950000      2456.370000      2429.960000      2401.040000      2386.590000      2372.130000      2350.720000      2333.990000      2318.970000      2314.390000      2309.810000      2301.010000      2297.010000      2292.030000      2286.090000      2280.140000      2274.230000      2267.490000      2260.740000      2257.420000      2254.100000      2248.740000      2243.920000      2239.590000      2236.000000      2232.400000      2232.790000      2237.660000      2244.790000      2244.380000      2243.970000      2245.790000      2250.840000      2256.420000      2254.860000      2253.300000      2251.070000      2250.840000      2248.130000      2243.590000      2239.040000      2241.990000      2244.130000      2245.830000      2249.330000      2252.840000      2250.780000      2245.620000      2239.180000      2243.300000      2247.420000      2253.100000      2261.640000      2275.130000      2276.410000      2277.700000      2284.260000      2292.100000      2295.980000      2293.870000      2291.770000      2296.660000      2303.170000      2307.080000      2313.500000      2319.910000      2325.520000      2333.160000      2342.250000      2350.430000      2358.620000      2362.740000      2366.460000      2371.830000      2383.730000      2395.620000      2402.300000      2409.850000      2419.530000      2424.990000      2430.450000      2443.800000      2459.470000      2470.040000      2477.200000      2484.360000      2489.930000
2443.400000      2447.400000      2451.600000      2456.000000      2460.000000      2464.000000      2468.000000      2471.400000      2474.600000      2478.000000      2481.200000      2484.400000      2488.000000      2491.600000      2495.200000      2498.800000      2502.400000      2506.000000      2509.600000      2513.200000      2516.400000      2519.600000      2522.600000      2525.400000      2528.400000      2531.600000      2534.800000      2537.400000      2540.200000      2542.600000      2545.000000      2547.400000      2550.200000      2553.000000      2555.800000      2558.600000      2561.400000      2564.200000      2566.600000      2569.000000      2571.800000      2574.600000      2577.200000      2579.600000      2582.200000      2584.600000      2587.000000      2588.800000      2590.400000      2591.800000      2593.000000      2594.200000      2594.600000      2595.000000      2595.400000      2595.400000      2595.400000      2595.400000      2595.400000      2595.400000      2595.400000      2595.400000      2594.800000      2594.400000      2594.000000      2594.000000      2594.000000      2593.800000      2593.800000      2593.800000      2593.800000      2593.800000      2593.600000      2593.200000      2592.600000      2592.200000      2591.800000      2590.400000      2589.200000      2588.440000      2587.240000      2586.040000      2571.280000      2562.130000      2541.070000      2529.510000      2517.960000      2491.000000      2459.640000      2433.150000      2406.740000      2380.320000      2367.290000      2352.840000      2342.730000      2326.000000      2309.270000      2304.400000      2299.820000      2295.540000      2291.540000      2287.540000      2281.030000      2275.080000      2269.760000      2263.020000      2256.280000      2252.340000      2249.020000      2244.570000      2239.750000      2234.930000      2231.200000      2227.610000      2225.130000      2230.000000      2234.880000      2235.500000      2235.090000      2237.070000      2242.110000      2247.160000      2247.520000      2245.960000      2244.030000      2243.800000      2243.560000      2239.630000      2235.080000      2232.270000      2234.410000      2236.550000      2240.410000      2243.920000      2248.040000      2242.890000      2237.730000      2237.810000      2241.940000      2244.130000      2252.670000      2261.220000      2268.180000      2269.470000      2271.720000      2279.550000      2287.380000      2285.720000      2283.610000      2284.050000      2290.560000      2297.070000      2304.020000      2310.430000      2319.030000      2326.670000      2334.300000      2342.690000      2350.880000      2358.190000      2361.900000      2365.620000      2374.250000      2386.140000      2397.370000      2404.920000      2412.470000      2421.220000      2426.680000      2433.910000      2449.570000      2465.240000      2478.120000      2485.280000      2485.800000
2444.200000      2448.200000      2452.200000      2456.400000      2460.400000      2464.000000      2468.000000      2471.600000      2475.000000      2478.400000      2482.000000      2485.200000      2488.800000      2492.400000      2496.000000      2499.600000      2503.200000      2506.800000      2510.400000      2514.000000      2517.600000      2520.800000      2524.000000      2527.000000      2530.000000      2533.200000      2536.400000      2538.800000      2541.400000      2543.800000      2545.800000      2548.200000      2551.000000      2553.800000      2556.600000      2559.400000      2562.200000      2565.400000      2568.200000      2570.600000      2573.000000      2575.800000      2578.600000      2581.200000      2583.800000      2586.600000      2589.000000      2591.000000      2592.800000      2594.200000      2595.400000      2596.600000      2597.000000      2597.400000      2597.800000      2598.200000      2598.200000      2598.200000      2598.200000      2598.200000      2598.200000      2598.200000      2597.400000      2596.800000      2596.400000      2596.000000      2596.000000      2595.600000      2595.400000      2595.400000      2595.400000      2595.400000      2595.400000      2595.200000      2594.600000      2593.800000      2593.400000      2591.800000      2590.400000      2589.640000      2589.320000      2588.120000      2567.760000      2553.000000      2531.940000      2498.980000      2487.430000      2464.850000      2437.890000      2411.400000      2389.780000      2363.370000      2351.760000      2338.730000      2328.620000      2322.840000      2306.120000      2300.940000      2296.070000      2291.780000      2287.790000      2283.790000      2276.720000      2270.210000      2264.880000      2260.170000      2253.430000      2248.870000      2244.930000      2240.480000      2234.880000      2230.060000      2226.200000      2222.470000      2219.990000      2218.640000      2223.510000      2225.160000      2225.780000      2227.760000      2232.120000      2237.170000      2239.440000      2239.790000      2237.860000      2235.560000      2235.330000      2232.000000      2228.070000      2225.260000      2224.180000      2226.320000      2230.530000      2234.380000      2238.510000      2243.250000      2238.090000      2234.130000      2234.210000      2236.400000      2236.660000      2245.210000      2257.840000      2264.810000      2267.060000      2270.280000      2278.110000      2276.890000      2275.230000      2275.670000      2278.660000      2285.160000      2292.650000      2299.600000      2308.200000      2319.000000      2326.630000      2335.230000      2343.620000      2350.930000      2357.360000      2361.080000      2366.440000      2375.070000      2386.300000      2396.860000      2404.400000      2416.460000      2425.210000      2432.440000      2441.430000      2457.090000      2475.690000      2488.580000      2489.090000
2445.400000      2449.000000      2453.000000      2457.000000      2460.800000      2464.400000      2468.000000      2471.600000      2475.200000      2478.800000      2482.400000      2486.000000      2489.600000      2493.200000      2496.800000      2500.400000      2504.000000      2507.600000      2511.200000      2514.800000      2518.400000      2522.000000      2525.200000      2528.400000      2531.600000      2534.800000      2538.000000      2540.400000      2542.800000      2545.000000      2547.000000      2549.000000      2551.800000      2554.600000      2557.400000      2560.200000      2563.000000      2566.200000      2569.400000      2572.200000      2574.600000      2577.000000      2579.800000      2582.600000      2585.400000      2588.200000      2591.000000      2593.000000      2595.000000      2596.600000      2597.800000      2599.000000      2599.400000      2599.800000      2600.200000      2600.600000      2601.000000      2601.000000      2601.000000      2601.000000      2601.000000      2601.000000      2600.200000      2599.400000      2598.800000      2598.400000      2598.000000      2597.600000      2597.200000      2597.000000      2597.000000      2597.000000      2597.000000      2597.000000      2596.600000      2595.800000      2595.000000      2593.400000      2591.800000      2590.840000      2590.520000      2590.200000      2569.840000      2549.480000      2522.820000      2489.850000      2456.890000      2434.320000      2411.750000      2389.650000      2368.040000      2346.420000      2334.810000      2323.200000      2314.500000      2308.730000      2302.960000      2297.790000      2292.620000      2288.030000      2284.040000      2280.040000      2272.970000      2265.900000      2260.000000      2255.290000      2250.580000      2246.020000      2241.460000      2236.380000      2230.790000      2225.200000      2221.330000      2217.460000      2214.850000      2213.500000      2212.140000      2213.790000      2215.440000      2218.450000      2222.810000      2227.170000      2229.440000      2231.710000      2231.700000      2229.400000      2227.100000      2223.770000      2220.440000      2218.240000      2217.170000      2216.090000      2220.290000      2224.500000      2228.970000      2233.710000      2238.450000      2234.490000      2230.530000      2228.680000      2228.940000      2229.200000      2241.840000      2254.470000      2262.400000      2265.620000      2268.840000      2267.620000      2266.400000      2267.280000      2270.270000      2273.260000      2280.740000      2288.230000      2297.370000      2308.160000      2318.960000      2327.560000      2336.150000      2343.670000      2350.100000      2356.540000      2361.900000      2367.260000      2375.220000      2385.780000      2396.340000      2408.390000      2420.440000      2430.970000      2439.960000      2448.950000      2467.550000      2486.150000      2492.380000
2446.600000      2450.200000      2453.800000      2457.800000      2461.400000      2464.800000      2468.400000      2472.000000      2475.600000      2479.200000      2482.800000      2486.400000      2490.000000      2493.600000      2497.200000      2500.800000      2504.400000      2508.400000      2512.000000      2515.600000      2519.200000      2522.800000      2526.000000      2529.200000      2532.400000      2535.600000      2538.800000      2541.200000      2543.600000      2545.800000      2547.800000      2549.800000      2553.000000      2555.800000      2558.600000      2561.400000      2564.200000      2567.400000      2570.600000      2573.600000      2576.200000      2578.600000      2581.800000      2584.600000      2587.400000      2590.200000      2593.000000      2595.400000      2597.400000      2599.000000      2600.200000      2601.400000      2602.200000      2602.600000      2603.200000      2603.800000      2604.200000      2604.600000      2604.600000      2604.400000      2604.200000      2604.200000      2603.000000      2602.200000      2601.400000      2600.800000      2600.400000      2600.000000      2599.600000      2599.200000      2599.000000      2599.000000      2598.600000      2598.600000      2598.200000      2597.400000      2596.600000      2596.870000      2595.270000      2586.610000      2578.580000      2578.260000      2560.350000      2539.990000      2514.800000      2483.310000      2450.350000      2416.790000      2394.210000      2376.660000      2359.580000      2337.970000      2333.090000      2321.480000      2312.040000      2305.520000      2299.750000      2294.800000      2289.630000      2284.730000      2280.420000      2276.420000      2270.060000      2262.990000      2256.800000      2251.790000      2247.080000      2242.240000      2237.680000      2232.410000      2226.630000      2221.040000      2218.410000      2214.540000      2212.880000      2212.480000      2211.120000      2210.700000      2212.350000      2214.190000      2217.390000      2221.750000      2226.390000      2228.660000      2227.020000      2223.100000      2220.800000      2220.670000      2217.340000      2216.720000      2217.230000      2216.150000      2215.990000      2220.200000      2226.810000      2233.690000      2238.430000      2238.790000      2234.830000      2229.640000      2226.550000      2226.810000      2231.100000      2243.740000      2252.930000      2257.410000      2260.630000      2265.100000      2263.880000      2264.780000      2267.790000      2270.780000      2274.510000      2281.990000      2289.920000      2299.500000      2310.300000      2316.790000      2325.390000      2334.170000      2341.870000      2348.310000      2356.860000      2362.220000      2370.430000      2381.240000      2391.800000      2399.700000      2411.760000      2424.460000      2435.640000      2444.630000      2455.670000      2474.270000      2482.510000
2447.600000      2451.400000      2455.000000      2458.600000      2462.200000      2465.400000      2468.800000      2472.400000      2476.000000      2479.600000      2483.200000      2486.800000      2490.400000      2494.000000      2497.600000      2501.200000      2504.800000      2508.800000      2512.800000      2516.400000      2520.000000      2523.600000      2526.800000      2530.000000      2533.200000      2536.400000      2539.600000      2542.000000      2544.400000      2546.600000      2548.600000      2550.600000      2553.800000      2557.000000      2559.800000      2562.600000      2565.400000      2568.600000      2571.800000      2574.800000      2577.600000      2580.200000      2583.400000      2586.600000      2589.400000      2592.200000      2595.000000      2597.400000      2599.800000      2601.400000      2602.600000      2603.800000      2604.600000      2605.400000      2606.000000      2606.800000      2607.400000      2607.800000      2608.200000      2608.000000      2607.600000      2607.400000      2606.200000      2605.000000      2604.200000      2603.400000      2602.800000      2602.400000      2602.000000      2601.600000      2601.200000      2601.000000      2600.600000      2600.200000      2599.800000      2599.000000      2598.200000      2598.470000      2598.740000      2590.080000      2574.350000      2566.320000      2548.410000      2530.500000      2505.310000      2475.300000      2443.810000      2410.250000      2376.680000      2359.130000      2346.590000      2329.520000      2324.640000      2319.760000      2310.330000      2303.060000      2296.540000      2291.600000      2286.650000      2281.750000      2277.120000      2272.810000      2266.440000      2260.080000      2253.890000      2248.590000      2243.580000      2238.740000      2233.910000      2228.640000      2222.660000      2216.870000      2214.240000      2211.620000      2209.960000      2210.510000      2210.110000      2209.680000      2209.260000      2211.100000      2213.130000      2216.330000      2220.970000      2225.610000      2223.970000      2218.420000      2214.490000      2214.370000      2214.240000      2213.620000      2215.710000      2216.220000      2216.060000      2215.900000      2222.510000      2231.530000      2238.410000      2238.770000      2239.140000      2233.940000      2227.500000      2224.420000      2228.710000      2233.000000      2242.190000      2247.940000      2252.420000      2256.890000      2261.360000      2262.260000      2265.290000      2268.290000      2272.020000      2275.760000      2283.680000      2292.050000      2301.630000      2308.130000      2314.620000      2323.410000      2332.370000      2340.080000      2348.630000      2357.180000      2365.390000      2376.460000      2387.270000      2395.170000      2403.070000      2415.780000      2429.140000      2440.320000      2451.360000      2462.400000      2470.640000
2448.200000      2452.200000      2456.000000      2459.600000      2463.000000      2466.200000      2469.400000      2473.000000      2476.600000      2480.000000      2483.600000      2487.200000      2490.800000      2494.400000      2498.000000      2501.600000      2505.200000      2509.000000      2513.000000      2516.800000      2520.400000      2524.000000      2527.200000      2530.400000      2533.400000      2536.600000      2539.800000      2542.200000      2544.600000      2547.200000      2549.200000      2551.200000      2554.400000      2557.600000      2561.000000      2563.800000      2566.600000      2569.800000      2573.000000      2576.400000      2579.200000      2582.000000      2585.200000      2588.400000      2591.400000      2594.200000      2597.000000      2599.600000      2602.000000      2604.000000      2605.200000      2606.400000      2607.400000      2608.200000      2609.400000      2610.200000      2611.000000      2611.400000      2611.800000      2611.600000      2611.200000      2610.800000      2609.600000      2608.400000      2607.200000      2606.400000      2605.600000      2604.800000      2604.400000      2603.800000      2603.400000      2603.000000      2602.400000      2602.000000      2601.000000      2600.200000      2599.400000      2589.920000      2590.190000      2583.630000      2567.890000      2552.160000      2534.860000      2516.950000      2492.620000      2462.610000      2432.590000      2404.470000      2370.910000      2348.450000      2335.910000      2323.380000      2318.210000      2313.330000      2307.860000      2300.600000      2293.330000      2288.230000      2283.280000      2278.690000      2274.060000      2269.430000      2263.090000      2256.730000      2250.750000      2245.450000      2240.140000      2234.990000      2230.160000      2225.500000      2219.520000      2213.540000      2212.300000      2209.670000      2208.450000      2209.000000      2209.560000      2208.980000      2208.560000      2208.980000      2211.010000      2213.040000      2215.740000      2220.380000      2222.000000      2216.450000      2210.900000      2210.730000      2210.610000      2210.620000      2212.710000      2214.800000      2215.770000      2215.610000      2216.470000      2225.490000      2234.510000      2238.140000      2238.500000      2237.840000      2231.400000      2224.970000      2226.030000      2230.320000      2233.170000      2238.920000      2244.660000      2246.720000      2251.190000      2257.080000      2260.100000      2263.120000      2268.150000      2271.880000      2278.500000      2286.860000      2295.230000      2302.450000      2308.950000      2316.160000      2325.130000      2334.100000      2342.970000      2351.520000      2359.040000      2370.100000      2381.170000      2387.940000      2395.840000      2406.540000      2419.900000      2433.270000      2443.810000      2454.850000      2465.360000
2448.600000      2452.600000      2456.600000      2460.400000      2463.800000      2467.000000      2470.200000      2473.800000      2477.400000      2480.800000      2484.000000      2487.600000      2491.200000      2494.800000      2498.400000      2502.000000      2505.600000      2509.200000      2513.000000      2516.800000      2520.400000      2524.000000      2527.200000      2530.400000      2533.400000      2536.200000      2539.400000      2541.800000      2544.200000      2546.800000      2549.600000      2551.600000      2554.800000      2558.000000      2561.400000      2565.000000      2567.800000      2571.000000      2574.200000      2577.600000      2581.200000      2584.000000      2587.200000      2590.400000      2593.400000      2596.200000      2599.000000      2601.800000      2604.400000      2606.400000      2608.000000      2609.200000      2610.400000      2611.400000      2612.600000      2614.200000      2615.000000      2615.400000      2615.800000      2615.600000      2614.800000      2614.400000      2613.200000      2612.000000      2610.800000      2609.600000      2608.800000      2607.600000      2606.800000      2606.200000      2605.400000      2605.000000      2604.200000      2603.600000      2602.600000      2601.000000      2600.200000      2580.960000      2571.480000      2564.910000      2551.520000      2535.790000      2519.090000      2501.790000      2477.460000      2446.710000      2416.700000      2394.020000      2365.890000      2343.440000      2332.090000      2319.550000      2314.090000      2308.910000      2303.440000      2297.380000      2290.120000      2284.850000      2279.750000      2275.160000      2270.930000      2266.300000      2259.990000      2253.650000      2247.670000      2242.070000      2236.770000      2231.310000      2226.160000      2221.500000      2217.020000      2211.040000      2211.190000      2209.950000      2208.730000      2208.920000      2209.470000      2208.740000      2208.170000      2208.590000      2209.860000      2211.890000      2212.640000      2215.330000      2216.960000      2215.570000      2210.010000      2209.800000      2209.630000      2209.650000      2209.810000      2211.890000      2214.000000      2214.980000      2215.840000      2217.720000      2226.740000      2233.630000      2237.260000      2236.590000      2234.900000      2228.460000      2226.290000      2227.350000      2230.200000      2231.600000      2237.350000      2237.000000      2239.060000      2244.950000      2252.250000      2255.270000      2261.590000      2266.620000      2273.230000      2282.730000      2291.100000      2299.040000      2306.260000      2313.470000      2321.410000      2330.370000      2339.560000      2348.430000      2355.950000      2362.430000      2373.500000      2379.140000      2385.910000      2396.610000      2410.110000      2423.480000      2433.530000      2444.080000      2454.590000
2449.400000      2453.000000      2457.000000      2461.000000      2464.600000      2467.800000      2471.000000      2474.600000      2478.200000      2481.600000      2484.800000      2488.000000      2491.600000      2495.200000      2498.800000      2502.400000      2506.000000      2509.600000      2513.200000      2516.800000      2520.400000      2524.000000      2527.200000      2530.400000      2533.400000      2536.200000      2539.000000      2541.400000      2543.800000      2546.400000      2549.200000      2552.000000      2555.200000      2558.400000      2561.800000      2565.400000      2569.000000      2572.200000      2575.400000      2578.800000      2582.400000      2586.000000      2589.200000      2592.400000      2595.400000      2598.200000      2601.000000      2603.800000      2606.600000      2608.800000      2610.400000      2612.000000      2613.200000      2614.400000      2615.800000      2617.400000      2619.000000      2619.400000      2619.800000      2619.600000      2618.800000      2618.000000      2616.800000      2615.600000      2614.400000      2613.200000      2612.000000      2610.800000      2609.600000      2608.600000      2607.800000      2607.000000      2606.200000      2605.400000      2604.200000      2602.600000      2601.000000      2581.760000      2562.520000      2546.200000      2532.810000      2519.410000      2502.710000      2486.020000      2462.300000      2431.550000      2400.810000      2378.130000      2355.440000      2338.430000      2327.080000      2315.730000      2310.260000      2304.790000      2299.030000      2292.960000      2286.900000      2281.640000      2276.370000      2271.630000      2267.400000      2263.170000      2256.850000      2250.540000      2244.580000      2238.990000      2233.390000      2227.930000      2222.470000      2217.500000      2213.020000      2208.540000      2208.690000      2208.840000      2209.000000      2209.190000      2209.380000      2208.660000      2207.930000      2208.200000      2209.470000      2210.740000      2211.490000      2212.240000      2211.910000      2210.520000      2209.130000      2208.920000      2208.710000      2208.680000      2208.830000      2208.990000      2211.100000      2213.210000      2215.200000      2217.090000      2218.970000      2225.860000      2232.750000      2235.340000      2233.650000      2231.960000      2229.790000      2227.620000      2227.230000      2228.640000      2230.040000      2229.690000      2229.340000      2232.820000      2240.120000      2247.420000      2253.740000      2260.060000      2267.970000      2277.460000      2286.960000      2294.900000      2302.850000      2310.790000      2318.720000      2326.650000      2335.840000      2345.030000      2352.860000      2359.350000      2365.830000      2371.470000      2377.120000      2386.690000      2400.190000      2413.690000      2423.750000      2433.800000      2443.820000
2449.800000      2453.400000      2457.400000      2461.400000      2465.200000      2468.600000      2471.800000      2475.000000      2478.600000      2482.000000      2485.200000      2488.400000      2492.400000      2496.000000      2499.400000      2502.800000      2506.400000      2510.000000      2513.600000      2516.800000      2520.000000      2523.600000      2526.400000      2529.600000      2532.600000      2535.400000      2538.200000      2541.000000      2543.400000      2546.200000      2549.200000      2552.000000      2555.600000      2558.800000      2562.400000      2566.200000      2569.800000      2573.400000      2576.600000      2580.000000      2583.600000      2587.200000      2590.000000      2593.200000      2596.600000      2599.800000      2602.600000      2605.800000      2608.600000      2611.200000      2613.200000      2614.800000      2615.600000      2616.800000      2616.600000      2616.600000      2618.200000      2615.000000      2615.400000      2616.000000      2616.000000      2615.200000      2617.600000      2616.400000      2616.000000      2615.600000      2614.400000      2613.200000      2612.000000      2610.600000      2609.400000      2608.600000      2607.400000      2606.600000      2602.170000      2597.350000      2595.750000      2574.590000      2555.350000      2535.260000      2518.080000      2504.690000      2490.450000      2473.750000      2448.620000      2416.470000      2385.720000      2372.060000      2349.380000      2334.220000      2324.730000      2313.380000      2307.640000      2302.170000      2296.030000      2289.590000      2283.530000      2278.950000      2273.680000      2268.100000      2263.030000      2258.810000      2252.160000      2245.850000      2240.440000      2235.390000      2229.790000      2225.660000      2220.200000      2216.780000      2213.860000      2209.380000      2208.400000      2208.550000      2208.640000      2208.750000      2208.940000      2209.500000      2208.780000      2207.980000      2208.190000      2209.460000      2209.490000      2210.240000      2211.360000      2211.410000      2210.020000      2210.420000      2210.210000      2209.610000      2209.190000      2209.350000      2212.310000      2214.420000      2213.090000      2211.650000      2213.530000      2222.470000      2229.350000      2231.340000      2229.030000      2227.340000      2228.630000      2226.460000      2225.350000      2226.040000      2227.440000      2229.710000      2229.360000      2231.900000      2238.260000      2245.560000      2249.480000      2255.800000      2264.340000      2274.480000      2283.980000      2289.640000      2297.580000      2305.980000      2314.380000      2322.310000      2329.720000      2338.910000      2347.600000      2354.940000      2361.430000      2370.400000      2376.040000      2384.500000      2396.890000      2410.390000      2422.160000      2432.220000      2442.690000
2450.000000      2453.800000      2457.800000      2461.800000      2465.600000      2469.200000      2472.600000      2475.800000      2479.000000      2482.400000      2485.600000      2488.800000      2492.800000      2496.800000      2500.200000      2503.400000      2506.800000      2510.400000      2514.000000      2517.200000      2520.000000      2523.200000      2526.000000      2528.800000      2531.800000      2534.600000      2537.400000      2540.200000      2543.000000      2545.800000      2549.000000      2552.000000      2555.600000      2559.200000      2562.800000      2566.800000      2570.600000      2574.200000      2577.800000      2581.200000      2584.800000      2588.400000      2591.200000      2594.000000      2597.400000      2601.000000      2604.200000      2607.400000      2610.600000      2613.200000      2615.600000      2617.600000      2618.400000      2619.200000      2619.000000      2617.400000      2617.400000      2614.200000      2611.000000      2611.600000      2612.400000      2612.400000      2614.800000      2617.200000      2616.800000      2617.200000      2616.800000      2615.600000      2614.400000      2613.000000      2611.400000      2610.200000      2609.000000      2607.800000      2603.370000      2595.320000      2590.500000      2569.340000      2548.180000      2528.090000      2507.140000      2489.960000      2475.720000      2461.480000      2436.350000      2402.790000      2370.630000      2356.970000      2343.310000      2328.160000      2320.520000      2311.030000      2305.290000      2299.550000      2293.410000      2286.590000      2280.160000      2275.580000      2271.000000      2265.410000      2259.510000      2254.440000      2247.800000      2241.150000      2235.750000      2231.250000      2226.200000      2222.070000      2217.930000      2214.520000      2213.140000      2210.210000      2209.240000      2208.260000      2208.350000      2208.380000      2208.490000      2209.060000      2209.620000      2208.830000      2207.970000      2208.170000      2208.210000      2208.240000      2209.360000      2210.860000      2210.910000      2211.310000      2211.710000      2211.110000      2210.120000      2209.700000      2212.670000      2215.640000      2214.310000      2209.530000      2208.090000      2217.030000      2225.960000      2227.940000      2225.020000      2222.710000      2224.000000      2225.300000      2224.190000      2224.160000      2224.840000      2227.110000      2229.380000      2231.920000      2237.340000      2243.710000      2247.620000      2251.530000      2260.080000      2270.860000      2280.990000      2286.660000      2292.320000      2300.720000      2309.580000      2317.970000      2325.380000      2332.790000      2341.480000      2349.680000      2357.020000      2365.990000      2374.970000      2383.420000      2394.700000      2407.080000      2418.860000      2430.630000      2441.110000
2450.000000      2454.000000      2458.000000      2462.000000      2466.000000      2469.600000      2473.200000      2476.400000      2479.600000      2483.000000      2486.200000      2489.400000      2493.200000      2497.200000      2501.000000      2504.200000      2507.400000      2510.800000      2514.400000      2517.600000      2520.400000      2523.200000      2525.800000      2528.600000      2531.200000      2534.000000      2536.800000      2539.800000      2542.600000      2545.600000      2548.800000      2552.000000      2555.800000      2559.400000      2563.200000      2567.200000      2571.200000      2575.000000      2578.600000      2582.000000      2585.600000      2589.200000      2592.400000      2595.200000      2598.600000      2602.200000      2605.800000      2609.400000      2612.600000      2614.400000      2616.800000      2619.200000      2616.600000      2617.400000      2614.400000      2612.800000      2611.200000      2608.400000      2605.200000      2603.400000      2604.200000      2605.000000      2606.400000      2608.800000      2613.800000      2614.200000      2614.600000      2617.000000      2615.800000      2615.600000      2614.000000      2612.400000      2607.920000      2606.720000      2594.980000      2586.930000      2578.870000      2561.620000      2540.460000      2520.740000      2499.780000      2478.830000      2460.790000      2446.550000      2427.230000      2393.670000      2360.100000      2348.160000      2334.500000      2324.060000      2316.430000      2308.800000      2303.030000      2297.280000      2291.520000      2284.710000      2277.900000      2272.700000      2268.120000      2262.960000      2257.050000      2251.150000      2244.940000      2238.290000      2232.320000      2227.820000      2223.320000      2219.960000      2215.830000      2213.380000      2212.000000      2210.620000      2209.320000      2208.340000      2208.310000      2208.340000      2208.370000      2207.990000      2208.560000      2209.460000      2208.600000      2207.740000      2207.690000      2207.730000      2207.610000      2209.100000      2210.600000      2210.220000      2210.620000      2211.860000      2210.880000      2209.890000      2212.980000      2215.950000      2216.080000      2211.300000      2206.530000      2211.920000      2220.860000      2224.850000      2221.930000      2219.000000      2221.460000      2222.750000      2221.530000      2221.490000      2221.450000      2224.200000      2226.470000      2229.020000      2234.440000      2239.870000      2246.710000      2250.620000      2256.630000      2267.410000      2278.190000      2283.980000      2289.650000      2296.160000      2305.020000      2313.870000      2321.760000      2329.170000      2334.630000      2342.830000      2351.030000      2363.170000      2372.140000      2383.780000      2395.050000      2406.320000      2416.670000      2428.440000      2436.340000
2450.000000      2454.000000      2458.000000      2462.000000      2466.000000      2470.000000      2473.600000      2476.800000      2480.000000      2483.400000      2487.000000      2490.200000      2493.800000      2497.600000      2501.400000      2505.000000      2508.200000      2511.400000      2514.800000      2518.000000      2520.800000      2523.600000      2526.000000      2528.600000      2531.200000      2533.600000      2536.400000      2539.600000      2542.600000      2545.600000      2548.800000      2552.000000      2556.000000      2559.800000      2563.600000      2567.600000      2571.600000      2575.600000      2579.400000      2582.800000      2586.000000      2589.600000      2593.200000      2596.400000      2599.800000      2603.800000      2607.400000      2611.400000      2615.000000      2616.800000      2617.200000      2619.600000      2613.600000      2611.000000      2608.000000      2601.200000      2599.600000      2597.200000      2594.400000      2592.600000      2592.200000      2593.000000      2593.400000      2594.800000      2599.800000      2607.400000      2607.800000      2613.800000      2616.200000      2616.000000      2616.800000      2615.200000      2607.450000      2602.970000      2591.230000      2568.930000      2560.880000      2547.520000      2530.260000      2510.540000      2492.250000      2471.300000      2449.450000      2431.400000      2412.090000      2387.690000      2354.130000      2343.890000      2331.950000      2321.520000      2314.310000      2306.680000      2300.880000      2295.110000      2289.340000      2283.560000      2276.750000      2270.930000      2265.730000      2260.570000      2254.830000      2248.930000      2243.150000      2236.930000      2230.960000      2225.660000      2221.160000      2218.580000      2215.220000      2212.760000      2211.990000      2210.610000      2208.980000      2207.680000      2207.640000      2208.540000      2208.570000      2207.250000      2206.870000      2207.780000      2209.030000      2208.170000      2208.030000      2207.990000      2207.870000      2207.600000      2209.090000      2207.930000      2207.550000      2208.800000      2210.890000      2209.900000      2213.120000      2216.210000      2216.340000      2213.630000      2208.860000      2210.700000      2216.080000      2220.080000      2219.140000      2216.210000      2219.830000      2222.280000      2221.060000      2217.320000      2217.280000      2220.510000      2223.250000      2225.800000      2228.630000      2234.060000      2243.820000      2250.660000      2256.670000      2264.780000      2275.560000      2281.490000      2287.290000      2293.800000      2301.170000      2310.020000      2318.390000      2326.280000      2331.740000      2335.240000      2343.440000      2358.750000      2370.890000      2382.530000      2396.830000      2408.100000      2417.020000      2427.370000      2435.260000
2450.000000      2454.000000      2458.000000      2462.000000      2466.000000      2470.000000      2474.000000      2477.200000      2480.400000      2483.800000      2487.400000      2491.000000      2494.600000      2498.200000      2501.800000      2505.400000      2509.000000      2512.200000      2515.400000      2518.400000      2521.200000      2524.000000      2526.400000      2528.800000      2531.200000      2533.600000      2536.000000      2539.200000      2542.400000      2545.600000      2548.800000      2552.000000      2556.000000      2560.000000      2564.000000      2568.000000      2572.000000      2576.000000      2580.000000      2583.600000      2586.800000      2590.000000      2593.600000      2597.200000      2601.000000      2605.000000      2609.000000      2613.000000      2617.000000      2619.200000      2619.600000      2620.000000      2614.000000      2608.000000      2601.600000      2594.800000      2588.000000      2585.600000      2583.200000      2581.800000      2581.400000      2581.000000      2581.400000      2581.800000      2585.800000      2593.400000      2601.000000      2607.000000      2613.000000      2616.400000      2617.200000      2618.000000      2610.250000      2602.500000      2587.470000      2565.180000      2542.890000      2529.530000      2516.170000      2500.340000      2482.050000      2463.760000      2441.910000      2420.060000      2396.940000      2372.550000      2348.150000      2337.920000      2327.690000      2318.970000      2311.760000      2304.560000      2298.760000      2292.960000      2287.170000      2281.380000      2275.600000      2269.780000      2263.970000      2258.190000      2252.450000      2246.710000      2240.930000      2235.140000      2229.600000      2224.300000      2219.000000      2216.420000      2213.830000      2212.150000      2211.380000      2210.600000      2208.970000      2207.340000      2206.970000      2207.870000      2208.770000      2207.450000      2206.130000      2206.090000      2207.340000      2208.590000      2208.460000      2208.330000      2208.120000      2207.850000      2207.580000      2206.420000      2205.260000      2205.730000      2207.820000      2209.920000      2213.140000      2216.350000      2216.600000      2213.890000      2211.180000      2213.020000      2214.860000      2215.310000      2214.360000      2213.420000      2217.040000      2220.650000      2220.590000      2216.850000      2213.110000      2216.330000      2219.560000      2222.580000      2225.410000      2228.240000      2238.000000      2247.770000      2256.710000      2264.820000      2272.930000      2278.860000      2284.790000      2291.440000      2298.810000      2306.170000      2314.540000      2322.910000      2328.850000      2332.350000      2335.850000      2351.160000      2366.470000      2381.280000      2395.580000      2409.880000      2418.800000      2427.720000      2434.190000
2450.000000      2454.000000      2458.400000      2462.400000      2466.600000      2470.800000      2474.800000      2478.400000      2481.600000      2484.800000      2488.200000      2491.800000      2495.400000      2499.000000      2502.400000      2505.800000      2509.400000      2512.600000      2515.800000      2518.600000      2521.200000      2524.000000      2526.800000      2529.200000      2531.800000      2534.400000      2536.800000      2539.600000      2542.800000      2546.200000      2549.600000      2552.800000      2556.400000      2560.400000      2564.400000      2568.400000      2572.400000      2576.400000      2580.400000      2584.200000      2587.600000      2590.800000      2594.800000      2598.400000      2602.600000      2607.000000      2611.000000      2613.000000      2617.000000      2614.800000      2610.800000      2611.200000      2605.600000      2599.600000      2595.800000      2591.600000      2584.800000      2584.400000      2582.000000      2580.800000      2580.600000      2580.200000      2579.800000      2580.200000      2580.400000      2584.200000      2591.800000      2597.400000      2603.400000      2611.170000      2616.330000      2617.130000      2596.650000      2588.900000      2577.090000      2558.010000      2535.720000      2521.000000      2507.640000      2490.420000      2470.730000      2452.440000      2428.610000      2406.760000      2387.170000      2366.310000      2341.920000      2336.250000      2326.020000      2317.850000      2311.200000      2304.000000      2297.740000      2291.940000      2285.750000      2279.560000      2273.780000      2269.000000      2263.180000      2257.890000      2252.630000      2246.890000      2242.840000      2237.060000      2231.010000      2225.200000      2219.900000      2215.130000      2212.540000      2210.690000      2209.740000      2208.960000      2208.240000      2206.610000      2206.450000      2207.550000      2208.450000      2205.800000      2204.480000      2204.510000      2205.820000      2207.070000      2207.670000      2207.540000      2208.950000      2210.280000      2210.010000      2208.150000      2206.990000      2206.300000      2207.230000      2209.320000      2211.020000      2214.240000      2215.720000      2214.230000      2211.520000      2211.800000      2213.640000      2215.330000      2215.640000      2214.700000      2213.500000      2217.120000      2218.150000      2215.510000      2211.770000      2214.300000      2217.530000      2222.490000      2227.250000      2230.080000      2233.470000      2243.230000      2251.750000      2259.430000      2267.550000      2273.230000      2279.160000      2285.460000      2292.470000      2299.840000      2308.120000      2316.490000      2326.390000      2333.850000      2337.350000      2352.370000      2367.690000      2379.770000      2391.350000      2405.650000      2414.410000      2423.330000      2433.220000
2450.200000      2454.000000      2458.400000      2462.800000      2467.000000      2471.400000      2475.600000      2479.200000      2482.800000      2486.000000      2489.200000      2492.600000      2496.200000      2499.800000      2503.200000      2506.400000      2509.800000      2513.000000      2516.200000      2519.000000      2521.400000      2524.000000      2526.800000      2529.600000      2532.200000      2535.000000      2537.600000      2540.400000      2543.200000      2546.600000      2550.200000      2553.600000      2557.200000      2560.800000      2564.800000      2568.800000      2572.800000      2576.800000      2580.800000      2584.600000      2588.200000      2591.600000      2595.600000      2599.600000      2603.800000      2608.600000      2613.000000      2615.000000      2617.000000      2614.800000      2606.400000      2602.400000      2596.800000      2591.200000      2587.400000      2585.800000      2581.600000      2581.200000      2580.800000      2579.600000      2579.600000      2579.400000      2579.000000      2578.600000      2578.800000      2578.800000      2582.600000      2588.200000      2593.800000      2601.570000      2611.100000      2616.260000      2595.780000      2575.300000      2563.490000      2547.630000      2528.550000      2513.830000      2499.110000      2481.890000      2460.800000      2441.110000      2417.280000      2393.460000      2373.870000      2356.550000      2335.690000      2330.020000      2324.350000      2316.190000      2310.090000      2303.440000      2297.180000      2290.930000      2284.730000      2278.140000      2271.950000      2267.180000      2262.400000      2257.110000      2252.330000      2247.080000      2243.030000      2238.970000      2232.930000      2226.610000      2220.810000      2216.030000      2211.260000      2209.400000      2208.280000      2207.330000      2206.600000      2205.880000      2205.720000      2207.030000      2208.140000      2205.480000      2202.830000      2202.860000      2204.240000      2205.550000      2206.150000      2206.760000      2208.160000      2211.110000      2212.440000      2210.580000      2208.720000      2208.030000      2207.800000      2208.730000      2210.420000      2212.120000      2213.600000      2213.340000      2211.860000      2212.140000      2212.410000      2214.110000      2215.670000      2215.970000      2214.780000      2213.580000      2214.620000      2213.070000      2210.430000      2212.960000      2215.490000      2220.460000      2227.160000      2231.920000      2235.310000      2238.700000      2247.210000      2254.470000      2262.160000      2267.840000      2273.520000      2279.820000      2286.490000      2293.510000      2301.790000      2310.070000      2319.970000      2331.380000      2338.840000      2353.870000      2368.900000      2380.980000      2389.840000      2401.420000      2410.180000      2418.940000      2428.830000
2450.800000      2454.400000      2458.600000      2463.000000      2467.400000      2471.800000      2476.200000      2480.000000      2483.600000      2487.000000      2490.200000      2493.400000      2496.800000      2500.400000      2503.800000      2507.000000      2510.200000      2513.200000      2516.400000      2519.200000      2521.600000      2524.000000      2526.800000      2529.600000      2532.600000      2535.400000      2538.200000      2541.400000      2544.200000      2547.400000      2551.000000      2554.600000      2558.200000      2561.800000      2565.600000      2569.600000      2573.600000      2577.600000      2581.600000      2585.600000      2589.200000      2592.800000      2596.800000      2600.800000      2605.000000      2609.800000      2614.600000      2614.400000      2616.400000      2612.400000      2604.000000      2595.600000      2591.400000      2585.800000      2583.000000      2581.400000      2579.800000      2579.400000      2579.000000      2578.800000      2578.800000      2578.800000      2578.800000      2578.400000      2578.850000      2578.850000      2578.850000      2582.030000      2587.630000      2591.450000      2600.980000      2610.510000      2590.120000      2569.640000      2552.200000      2536.330000      2520.460000      2508.130000      2493.410000      2474.110000      2453.030000      2431.940000      2407.970000      2384.140000      2366.810000      2349.480000      2332.160000      2327.590000      2321.920000      2315.170000      2309.070000      2302.970000      2296.250000      2290.000000      2285.850000      2279.260000      2272.670000      2268.330000      2263.550000      2257.960000      2253.190000      2248.420000      2243.010000      2238.960000      2233.530000      2227.220000      2220.910000      2216.430000      2211.660000      2208.320000      2207.200000      2206.080000      2206.540000      2205.810000      2204.690000      2206.000000      2207.310000      2206.100000      2203.450000      2202.210000      2203.590000      2204.970000      2205.040000      2205.650000      2205.940000      2208.880000      2211.830000      2210.810000      2208.950000      2208.630000      2208.400000      2208.160000      2208.800000      2210.500000      2212.650000      2212.390000      2212.140000      2212.120000      2212.400000      2212.140000      2213.700000      2215.260000      2215.530000      2214.330000      2212.920000      2211.370000      2209.830000      2210.650000      2213.180000      2217.180000      2223.880000      2230.580000      2235.900000      2239.290000      2244.650000      2251.910000      2259.170000      2265.030000      2270.710000      2277.120000      2283.790000      2290.450000      2298.320000      2306.610000      2317.160000      2328.570000      2339.990000      2353.430000      2368.460000      2379.960000      2388.810000      2397.670000      2408.490000      2417.250000      2422.150000
2451.600000      2455.200000      2459.200000      2463.400000      2467.800000      2472.200000      2476.600000      2480.600000      2484.400000      2487.800000      2491.000000      2494.200000      2497.400000      2500.800000      2504.200000      2507.400000      2510.600000      2513.400000      2516.400000      2519.200000      2521.600000      2524.000000      2526.800000      2529.600000      2532.600000      2535.800000      2538.600000      2542.200000      2545.400000      2548.600000      2552.200000      2555.800000      2559.400000      2563.000000      2566.800000      2570.800000      2574.800000      2578.800000      2582.800000      2586.800000      2590.800000      2594.400000      2598.400000      2602.400000      2606.600000      2611.000000      2615.800000      2613.400000      2613.200000      2609.200000      2599.200000      2590.800000      2588.000000      2583.800000      2581.000000      2581.000000      2579.400000      2579.000000      2578.600000      2578.400000      2578.400000      2578.400000      2578.800000      2578.800000      2579.250000      2580.560000      2580.560000      2581.300000      2584.480000      2588.300000      2590.340000      2599.870000      2579.570000      2559.190000      2541.740000      2527.340000      2511.470000      2501.520000      2489.190000      2469.890000      2446.000000      2424.910000      2400.810000      2376.840000      2359.510000      2348.660000      2331.330000      2327.860000      2323.290000      2316.530000      2308.700000      2302.600000      2295.420000      2288.700000      2284.550000      2282.520000      2275.920000      2272.020000      2267.690000      2262.100000      2255.690000      2250.920000      2244.160000      2238.750000      2233.320000      2226.520000      2220.210000      2216.030000      2211.560000      2208.220000      2206.330000      2205.210000      2206.860000      2207.320000      2206.190000      2204.660000      2205.970000      2206.210000      2205.010000      2203.770000      2203.940000      2205.320000      2204.870000      2204.950000      2205.240000      2205.210000      2208.160000      2207.980000      2206.960000      2206.640000      2207.860000      2207.630000      2207.210000      2207.840000      2210.000000      2212.610000      2212.350000      2212.050000      2212.040000      2211.780000      2210.990000      2212.550000      2214.280000      2214.550000      2213.140000      2211.510000      2209.970000      2209.070000      2209.890000      2213.890000      2219.370000      2226.070000      2233.310000      2238.630000      2243.990000      2251.320000      2258.580000      2264.610000      2270.460000      2276.870000      2284.010000      2290.680000      2298.140000      2306.010000      2316.560000      2329.370000      2340.790000      2352.650000      2366.090000      2377.590000      2385.550000      2394.410000      2407.290000      2418.110000      2423.000000
2452.000000      2456.000000      2460.000000      2464.000000      2468.200000      2472.600000      2477.000000      2481.000000      2485.000000      2488.600000      2491.800000      2495.000000      2498.200000      2501.400000      2504.600000      2507.800000      2511.000000      2513.800000      2516.600000      2519.200000      2521.600000      2524.000000      2526.800000      2529.600000      2532.600000      2535.800000      2539.000000      2542.600000      2546.200000      2549.800000      2553.400000      2557.000000      2560.600000      2564.200000      2568.000000      2572.000000      2576.000000      2580.000000      2584.000000      2588.000000      2592.000000      2596.000000      2600.000000      2604.000000      2608.200000      2612.600000      2617.000000      2614.600000      2612.200000      2606.000000      2596.000000      2586.000000      2583.200000      2580.400000      2579.000000      2579.000000      2579.000000      2578.600000      2578.200000      2578.000000      2578.000000      2578.000000      2578.400000      2578.800000      2579.650000      2580.960000      2582.260000      2583.010000      2583.760000      2585.150000      2587.190000      2589.230000      2568.930000      2548.640000      2531.290000      2516.880000      2502.480000      2492.530000      2482.580000      2465.660000      2441.770000      2417.890000      2393.790000      2369.680000      2352.210000      2341.360000      2330.510000      2327.030000      2323.560000      2317.900000      2310.070000      2302.230000      2295.050000      2287.860000      2283.250000      2281.220000      2279.180000      2275.280000      2271.380000      2266.230000      2259.820000      2253.420000      2246.660000      2239.890000      2233.110000      2226.310000      2219.510000      2215.330000      2211.160000      2208.120000      2206.230000      2204.340000      2205.990000      2207.640000      2207.690000      2206.160000      2204.630000      2204.870000      2205.120000      2205.330000      2205.500000      2205.680000      2205.230000      2204.780000      2204.540000      2204.510000      2204.490000      2204.310000      2204.140000      2204.660000      2205.880000      2207.100000      2206.680000      2206.250000      2207.350000      2209.960000      2212.570000      2212.270000      2211.960000      2211.420000      2210.630000      2209.840000      2211.580000      2213.310000      2213.370000      2211.740000      2210.110000      2209.210000      2208.320000      2210.610000      2216.080000      2221.550000      2228.800000      2236.050000      2243.330000      2250.660000      2257.990000      2264.020000      2270.050000      2276.630000      2283.770000      2290.910000      2298.370000      2305.820000      2315.960000      2328.770000      2341.590000      2353.450000      2365.300000      2375.210000      2383.180000      2391.150000      2404.030000      2416.900000      2423.850000
2452.400000      2456.400000      2460.400000      2464.400000      2468.400000      2472.600000      2477.000000      2481.000000      2485.000000      2489.000000      2492.600000      2495.800000      2499.000000      2502.200000      2505.200000      2508.200000      2511.400000      2513.800000      2516.600000      2519.400000      2522.000000      2524.400000      2527.200000      2530.000000      2533.200000      2536.600000      2539.800000      2543.400000      2547.000000      2550.800000      2554.600000      2558.200000      2561.800000      2565.400000      2569.200000      2573.200000      2577.200000      2582.000000      2586.000000      2589.600000      2593.200000      2597.200000      2600.400000      2604.400000      2608.400000      2612.600000      2617.000000      2612.200000      2609.800000      2604.400000      2595.200000      2585.200000      2584.000000      2581.200000      2579.600000      2579.400000      2579.400000      2579.000000      2578.600000      2578.000000      2577.600000      2577.600000      2577.600000      2578.000000      2579.360000      2581.170000      2582.480000      2582.170000      2582.920000      2581.750000      2581.230000      2583.270000      2569.630000      2549.330000      2530.800000      2515.200000      2500.800000      2482.110000      2472.160000      2456.880000      2434.640000      2410.760000      2389.740000      2365.630000      2352.300000      2345.590000      2334.750000      2324.470000      2321.000000      2316.980000      2310.780000      2302.940000      2295.940000      2288.750000      2285.610000      2285.040000      2283.000000      2273.950000      2270.050000      2265.620000      2259.930000      2253.530000      2245.340000      2238.570000      2232.240000      2225.880000      2219.080000      2214.090000      2209.910000      2208.860000      2208.950000      2207.060000      2204.250000      2205.900000      2207.070000      2206.650000      2205.120000      2205.170000      2205.410000      2205.890000      2206.330000      2206.500000      2206.260000      2205.800000      2205.170000      2204.750000      2204.730000      2204.760000      2204.580000      2205.060000      2206.230000      2207.450000      2207.210000      2206.790000      2206.910000      2208.550000      2211.160000      2211.030000      2210.720000      2210.700000      2210.440000      2209.660000      2209.760000      2211.500000      2212.560000      2211.930000      2210.300000      2209.990000      2209.090000      2211.270000      2216.640000      2222.110000      2229.920000      2237.170000      2244.700000      2252.280000      2259.610000      2265.240000      2271.270000      2277.610000      2284.510000      2291.650000      2302.260000      2309.710000      2318.840000      2330.650000      2343.470000      2355.570000      2367.430000      2377.060000      2384.760000      2392.730000      2400.720000      2413.590000      2426.410000
2452.800000      2456.800000      2460.800000      2464.800000      2468.800000      2472.800000      2477.000000      2481.000000      2485.000000      2489.000000      2493.000000      2496.600000      2499.800000      2503.000000      2506.000000      2508.800000      2511.800000      2514.200000      2516.600000      2519.400000      2522.200000      2524.800000      2527.600000      2530.400000      2533.600000      2537.200000      2540.600000      2544.200000      2547.800000      2551.600000      2555.600000      2559.400000      2563.000000      2566.600000      2570.400000      2574.400000      2578.400000      2583.200000      2588.000000      2591.600000      2594.800000      2598.400000      2601.600000      2604.800000      2608.800000      2612.800000      2617.000000      2612.200000      2607.400000      2602.000000      2593.600000      2584.400000      2583.200000      2582.000000      2580.400000      2580.000000      2579.800000      2579.400000      2579.000000      2578.400000      2577.600000      2577.200000      2577.200000      2577.200000      2578.560000      2580.880000      2582.690000      2582.390000      2582.080000      2580.920000      2577.830000      2577.310000      2563.670000      2550.030000      2531.490000      2514.710000      2499.120000      2480.430000      2461.740000      2446.470000      2425.870000      2403.630000      2382.610000      2361.590000      2348.250000      2345.690000      2338.980000      2328.710000      2318.440000      2314.420000      2309.850000      2303.650000      2296.650000      2289.650000      2286.500000      2287.390000      2286.820000      2277.770000      2268.720000      2264.290000      2259.320000      2253.640000      2245.440000      2237.250000      2230.920000      2225.010000      2218.650000      2213.660000      2208.660000      2207.610000      2209.680000      2209.770000      2206.960000      2204.160000      2205.330000      2206.020000      2205.610000      2205.660000      2205.710000      2206.180000      2206.890000      2207.330000      2207.080000      2206.830000      2206.200000      2205.380000      2204.960000      2204.990000      2205.030000      2205.500000      2206.620000      2207.800000      2207.560000      2207.320000      2207.440000      2208.110000      2209.750000      2209.610000      2209.480000      2209.460000      2209.730000      2209.470000      2209.580000      2209.690000      2210.740000      2211.120000      2210.490000      2210.180000      2209.860000      2212.040000      2217.300000      2222.670000      2230.480000      2238.290000      2245.820000      2253.650000      2261.230000      2266.860000      2272.490000      2278.830000      2285.500000      2292.400000      2303.000000      2313.610000      2322.740000      2333.540000      2345.350000      2357.450000      2369.550000      2379.190000      2386.610000      2394.300000      2402.290000      2410.290000      2423.100000
2453.000000      2457.000000      2461.000000      2465.000000      2469.200000      2473.200000      2477.200000      2481.400000      2485.400000      2489.200000      2493.200000      2497.200000      2500.400000      2503.600000      2506.600000      2509.400000      2512.200000      2514.400000      2516.800000      2519.400000      2522.200000      2525.000000      2528.000000      2530.800000      2534.000000      2537.600000      2541.200000      2545.000000      2548.600000      2552.600000      2556.600000      2560.600000      2564.200000      2567.800000      2571.400000      2575.400000      2579.400000      2584.200000      2589.000000      2593.000000      2596.200000      2599.400000      2602.400000      2605.600000      2608.200000      2612.200000      2616.200000      2610.800000      2606.000000      2600.000000      2591.600000      2583.200000      2583.600000      2582.400000      2581.600000      2581.200000      2580.800000      2580.000000      2579.600000      2578.600000      2577.800000      2577.000000      2576.800000      2576.800000      2578.140000      2580.460000      2582.780000      2582.540000      2582.240000      2577.990000      2574.910000      2571.830000      2557.690000      2544.050000      2534.240000      2517.460000      2500.680000      2477.840000      2459.160000      2438.120000      2417.520000      2396.920000      2379.960000      2358.940000      2344.330000      2341.760000      2339.200000      2331.040000      2320.770000      2313.050000      2308.480000      2303.920000      2300.270000      2293.270000      2286.430000      2287.320000      2288.210000      2280.410000      2271.360000      2263.750000      2258.780000      2253.810000      2246.280000      2238.090000      2230.550000      2224.640000      2218.730000      2213.390000      2208.390000      2205.910000      2207.980000      2210.050000      2208.080000      2205.270000      2204.760000      2205.450000      2206.150000      2205.290000      2205.340000      2206.730000      2207.430000      2208.130000      2207.610000      2207.360000      2206.470000      2205.650000      2204.840000      2204.960000      2204.990000      2205.070000      2206.190000      2207.320000      2208.460000      2208.230000      2207.490000      2208.150000      2208.820000      2209.900000      2209.770000      2208.160000      2208.420000      2208.690000      2208.670000      2208.770000      2209.270000      2209.650000      2210.020000      2210.150000      2209.830000      2212.560000      2217.820000      2223.080000      2231.130000      2238.940000      2246.150000      2253.980000      2261.810000      2268.830000      2274.460000      2280.150000      2286.810000      2293.480000      2305.400000      2316.000000      2324.570000      2335.370000      2346.170000      2358.890000      2370.990000      2382.940000      2390.360000      2397.780000      2403.510000      2411.500000      2415.110000
2453.000000      2457.000000      2461.000000      2465.000000      2469.200000      2473.600000      2477.600000      2482.000000      2486.200000      2490.000000      2493.600000      2497.600000      2500.800000      2504.000000      2507.000000      2509.800000      2512.600000      2514.600000      2516.800000      2519.400000      2522.200000      2525.000000      2528.200000      2531.200000      2534.400000      2538.000000      2541.600000      2545.600000      2549.400000      2553.400000      2557.800000      2561.800000      2565.400000      2569.000000      2572.600000      2576.200000      2580.200000      2585.000000      2589.800000      2593.800000      2597.000000      2600.200000      2603.000000      2606.000000      2608.600000      2610.600000      2614.600000      2608.600000      2603.200000      2597.200000      2590.000000      2581.600000      2583.600000      2584.000000      2583.200000      2582.800000      2582.400000      2581.200000      2580.400000      2579.400000      2577.800000      2577.000000      2576.600000      2576.400000      2577.740000      2580.410000      2582.730000      2582.570000      2582.340000      2578.090000      2569.900000      2566.820000      2552.180000      2538.040000      2528.230000      2522.270000      2505.490000      2478.500000      2455.660000      2434.620000      2411.240000      2390.640000      2377.740000      2360.770000      2346.160000      2337.960000      2335.390000      2329.350000      2321.190000      2313.470000      2308.300000      2303.740000      2303.450000      2299.810000      2292.960000      2286.280000      2287.170000      2280.620000      2272.820000      2265.210000      2259.030000      2254.060000      2247.180000      2239.650000      2232.110000      2225.230000      2219.320000      2213.630000      2208.290000      2205.800000      2205.820000      2207.890000      2206.760000      2204.790000      2204.280000      2206.050000      2206.740000      2204.970000      2204.110000      2205.490000      2208.220000      2208.920000      2208.120000      2207.590000      2206.700000      2205.160000      2204.350000      2204.560000      2204.680000      2204.760000      2204.890000      2206.010000      2208.540000      2209.690000      2208.950000      2207.710000      2208.370000      2210.670000      2211.750000      2210.140000      2207.050000      2207.320000      2207.160000      2207.130000      2207.630000      2208.520000      2208.890000      2209.460000      2209.590000      2212.310000      2218.080000      2223.340000      2231.630000      2239.680000      2246.890000      2253.520000      2261.340000      2269.760000      2276.780000      2282.470000      2288.220000      2294.890000      2308.120000      2320.040000      2328.610000      2335.140000      2345.940000      2359.270000      2371.990000      2383.940000      2395.750000      2403.170000      2406.620000      2412.350000      2415.950000
2453.400000      2457.000000      2461.000000      2465.000000      2469.200000      2473.600000      2478.000000      2482.400000      2486.800000      2490.800000      2494.400000      2498.000000      2501.200000      2504.400000      2507.400000      2510.200000      2513.000000      2515.000000      2517.000000      2519.400000      2522.200000      2525.000000      2528.200000      2531.400000      2534.800000      2538.400000      2542.000000      2546.000000      2550.000000      2554.200000      2558.600000      2563.000000      2566.600000      2570.200000      2573.800000      2577.400000      2581.000000      2585.800000      2590.600000      2594.600000      2597.800000      2601.000000      2603.800000      2606.600000      2609.000000      2611.000000      2613.000000      2607.000000      2601.000000      2594.400000      2587.200000      2580.000000      2582.000000      2584.000000      2584.800000      2584.400000      2584.000000      2582.800000      2581.600000      2580.200000      2578.600000      2577.000000      2576.600000      2576.200000      2577.340000      2580.010000      2582.690000      2582.530000      2582.360000      2578.190000      2570.000000      2561.810000      2547.170000      2532.530000      2522.230000      2516.260000      2510.290000      2483.300000      2456.310000      2431.130000      2407.740000      2384.360000      2371.460000      2358.550000      2348.000000      2339.790000      2331.590000      2325.540000      2319.490000      2313.890000      2308.720000      2303.560000      2303.270000      2302.980000      2299.500000      2292.810000      2286.130000      2279.580000      2273.030000      2266.670000      2260.490000      2254.310000      2247.430000      2240.550000      2233.670000      2226.790000      2219.910000      2214.220000      2208.530000      2205.690000      2205.710000      2205.730000      2204.600000      2203.470000      2203.800000      2205.570000      2207.340000      2205.560000      2203.790000      2204.260000      2206.990000      2209.710000      2208.910000      2208.100000      2206.930000      2205.400000      2203.860000      2204.070000      2204.280000      2204.450000      2204.580000      2204.710000      2207.240000      2209.770000      2210.410000      2209.170000      2207.930000      2210.230000      2212.520000      2212.120000      2209.030000      2205.940000      2205.780000      2205.620000      2205.980000      2206.870000      2207.760000      2208.330000      2208.900000      2212.060000      2217.830000      2223.600000      2231.890000      2240.180000      2247.630000      2254.260000      2260.880000      2269.290000      2277.700000      2284.790000      2290.540000      2296.300000      2309.540000      2322.770000      2332.650000      2339.180000      2345.710000      2359.040000      2372.370000      2384.940000      2396.750000      2408.550000      2412.010000      2415.460000      2416.800000
2454.600000      2458.200000      2461.800000      2465.800000      2470.000000      2474.400000      2478.800000      2482.800000      2487.200000      2491.200000      2494.800000      2498.400000      2501.200000      2504.400000      2507.400000      2510.200000      2513.000000      2515.400000      2517.400000      2520.000000      2523.000000      2525.800000      2529.000000      2532.200000      2535.600000      2539.200000      2542.800000      2546.400000      2550.400000      2554.400000      2558.600000      2563.000000      2567.000000      2570.600000      2574.200000      2577.800000      2581.400000      2585.400000      2590.200000      2594.200000      2597.400000      2600.600000      2603.400000      2606.200000      2609.200000      2611.800000      2613.800000      2607.000000      2601.000000      2594.200000      2586.800000      2579.600000      2580.400000      2582.400000      2584.000000      2584.400000      2584.000000      2582.800000      2581.600000      2580.400000      2579.000000      2577.400000      2576.600000      2576.200000      2577.230000      2579.810000      2582.480000      2582.330000      2582.170000      2580.300000      2574.420000      2566.230000      2547.550000      2532.910000      2519.280000      2509.990000      2504.020000      2483.090000      2456.110000      2434.580000      2414.850000      2391.460000      2374.160000      2361.250000      2349.720000      2340.550000      2332.340000      2326.010000      2319.970000      2314.360000      2309.200000      2304.030000      2304.600000      2304.320000      2301.740000      2295.970000      2289.290000      2281.650000      2275.100000      2270.360000      2265.800000      2259.620000      2249.970000      2243.090000      2236.290000      2229.500000      2222.620000      2217.040000      2211.350000      2208.110000      2207.740000      2207.760000      2208.000000      2206.870000      2205.220000      2205.020000      2206.790000      2206.220000      2204.450000      2205.020000      2207.830000      2210.560000      2209.210000      2208.410000      2207.250000      2205.720000      2204.190000      2205.050000      2205.260000      2205.610000      2205.920000      2206.050000      2205.820000      2208.350000      2209.480000      2208.730000      2207.490000      2206.210000      2208.510000      2210.230000      2209.260000      2206.170000      2206.620000      2206.460000      2208.670000      2211.400000      2212.280000      2217.410000      2217.980000      2220.360000      2225.350000      2231.120000      2235.720000      2244.010000      2251.230000      2257.620000      2264.240000      2272.040000      2280.450000      2288.680000      2295.580000      2301.340000      2311.240000      2324.480000      2336.210000      2344.590000      2351.120000      2360.510000      2373.840000      2385.500000      2396.400000      2408.210000      2413.830000      2417.290000      2420.840000
2456.000000      2459.400000      2463.000000      2466.600000      2470.800000      2475.200000      2479.600000      2483.600000      2487.600000      2491.600000      2495.200000      2498.800000      2501.600000      2504.400000      2507.400000      2510.200000      2513.000000      2515.400000      2517.800000      2520.400000      2523.600000      2526.600000      2529.800000      2533.000000      2536.400000      2540.000000      2543.600000      2547.200000      2550.800000      2554.800000      2558.800000      2563.000000      2567.000000      2571.000000      2574.600000      2578.200000      2581.800000      2585.800000      2589.800000      2593.800000      2597.000000      2600.200000      2603.000000      2605.800000      2608.800000      2612.000000      2614.600000      2607.800000      2601.000000      2594.200000      2586.600000      2579.200000      2580.000000      2580.800000      2582.400000      2583.600000      2584.000000      2582.800000      2581.600000      2580.400000      2579.200000      2577.800000      2577.000000      2576.200000      2577.230000      2579.700000      2582.270000      2582.130000      2581.980000      2580.110000      2576.530000      2570.650000      2551.970000      2533.280000      2519.660000      2507.040000      2497.750000      2476.830000      2455.900000      2434.370000      2418.300000      2398.570000      2381.260000      2363.950000      2352.420000      2342.270000      2333.090000      2326.770000      2320.440000      2314.830000      2309.670000      2304.500000      2305.080000      2305.650000      2303.080000      2298.220000      2292.450000      2284.810000      2277.170000      2272.430000      2269.490000      2264.930000      2255.280000      2245.620000      2238.830000      2232.120000      2225.330000      2219.750000      2214.170000      2210.930000      2210.160000      2209.790000      2210.030000      2210.270000      2208.610000      2206.440000      2206.240000      2205.670000      2205.110000      2205.680000      2208.590000      2211.410000      2210.060000      2208.720000      2207.560000      2206.040000      2204.520000      2205.380000      2206.240000      2206.590000      2207.080000      2207.390000      2207.160000      2206.930000      2208.060000      2207.800000      2207.040000      2205.770000      2204.490000      2206.210000      2207.370000      2206.400000      2206.850000      2207.300000      2209.510000      2214.080000      2216.810000      2221.930000      2227.060000      2229.440000      2233.650000      2238.640000      2243.240000      2247.850000      2255.070000      2261.220000      2267.610000      2275.400000      2283.200000      2291.430000      2299.470000      2306.370000      2316.280000      2326.180000      2337.920000      2348.150000      2356.530000      2365.920000      2375.310000      2386.970000      2396.960000      2407.860000      2413.490000      2419.110000      2422.660000
2457.200000      2460.400000      2464.000000      2467.600000      2471.200000      2475.600000      2480.000000      2483.800000      2487.800000      2491.600000      2495.200000      2498.800000      2501.800000      2504.600000      2507.400000      2510.200000      2513.000000      2515.600000      2518.000000      2521.200000      2524.400000      2527.600000      2530.800000      2534.000000      2537.200000      2540.800000      2544.400000      2547.800000      2551.400000      2555.000000      2559.000000      2563.000000      2567.000000      2571.000000      2574.800000      2578.400000      2582.000000      2585.600000      2589.600000      2593.000000      2596.200000      2599.400000      2602.200000      2605.000000      2607.600000      2610.800000      2614.000000      2609.000000      2602.200000      2594.200000      2586.600000      2579.000000      2579.400000      2580.200000      2581.200000      2582.400000      2583.600000      2583.000000      2581.800000      2580.800000      2579.600000      2578.400000      2577.400000      2576.600000      2577.270000      2579.740000      2582.200000      2581.860000      2581.710000      2574.730000      2571.150000      2567.580000      2553.400000      2534.710000      2519.230000      2506.620000      2494.000000      2471.080000      2450.150000      2434.880000      2418.810000      2402.730000      2385.200000      2367.900000      2354.990000      2344.840000      2334.690000      2328.280000      2321.950000      2316.640000      2311.470000      2306.310000      2303.920000      2304.500000      2303.650000      2298.800000      2293.940000      2288.070000      2280.430000      2274.780000      2271.840000      2268.900000      2259.490000      2249.840000      2243.540000      2236.830000      2230.120000      2224.830000      2219.250000      2211.680000      2210.910000      2210.140000      2210.500000      2210.740000      2209.810000      2207.630000      2205.460000      2204.110000      2203.550000      2204.660000      2207.570000      2210.490000      2211.150000      2209.800000      2209.320000      2207.810000      2206.290000      2207.360000      2208.220000      2209.140000      2209.630000      2210.120000      2210.460000      2210.230000      2210.270000      2210.010000      2209.740000      2208.840000      2207.570000      2207.680000      2208.840000      2209.990000      2210.330000      2210.780000      2212.490000      2217.060000      2221.630000      2226.590000      2231.720000      2236.580000      2240.790000      2245.000000      2249.890000      2254.490000      2260.080000      2266.230000      2272.390000      2278.720000      2286.510000      2294.770000      2302.810000      2310.860000      2320.340000      2330.250000      2339.730000      2349.960000      2360.200000      2369.220000      2378.610000      2387.060000      2397.050000      2407.040000      2413.330000      2418.950000      2422.860000
2458.000000      2461.200000      2464.800000      2468.400000      2472.000000      2475.600000      2480.000000      2483.600000      2487.400000      2491.200000      2494.800000      2498.400000      2501.600000      2504.600000      2507.400000      2510.200000      2513.000000      2515.800000      2518.400000      2521.600000      2525.600000      2528.800000      2532.000000      2535.200000      2538.400000      2541.600000      2545.200000      2548.400000      2551.800000      2555.400000      2559.000000      2563.000000      2567.000000      2571.000000      2574.800000      2578.400000      2582.000000      2585.200000      2588.800000      2592.200000      2595.000000      2598.200000      2601.000000      2603.800000      2606.400000      2608.800000      2612.000000      2608.800000      2603.800000      2595.800000      2586.600000      2579.000000      2579.000000      2579.400000      2580.400000      2581.600000      2582.800000      2582.800000      2582.200000      2581.200000      2580.400000      2579.200000      2578.000000      2577.000000      2577.670000      2579.800000      2582.270000      2581.740000      2581.390000      2574.410000      2560.590000      2557.010000      2547.330000      2533.150000      2517.670000      2505.380000      2492.770000      2467.860000      2444.930000      2429.660000      2420.030000      2403.960000      2386.210000      2368.680000      2355.770000      2347.270000      2337.120000      2330.630000      2324.220000      2318.900000      2314.610000      2309.440000      2304.100000      2301.720000      2300.880000      2298.620000      2293.770000      2289.660000      2283.780000      2278.130000      2274.470000      2271.530000      2262.370000      2252.960000      2246.660000      2243.720000      2237.010000      2232.000000      2226.710000      2219.140000      2209.590000      2208.810000      2209.290000      2209.650000      2208.730000      2206.630000      2204.450000      2202.330000      2200.980000      2202.090000      2204.890000      2207.800000      2210.470000      2211.130000      2210.650000      2211.030000      2209.510000      2210.800000      2211.870000      2212.790000      2213.750000      2214.250000      2215.150000      2215.490000      2215.530000      2215.840000      2215.570000      2215.060000      2214.160000      2214.280000      2215.790000      2216.940000      2217.170000      2217.510000      2219.220000      2222.180000      2226.750000      2231.550000      2236.510000      2241.380000      2245.990000      2250.190000      2255.370000      2260.250000      2265.850000      2272.430000      2278.580000      2283.440000      2289.770000      2298.030000      2306.740000      2314.790000      2323.860000      2333.350000      2342.830000      2351.880000      2362.110000      2370.770000      2379.800000      2388.250000      2395.750000      2405.750000      2412.700000      2418.990000      2422.900000
2458.400000      2462.000000      2465.600000      2469.200000      2472.800000      2476.400000      2480.000000      2483.600000      2487.200000      2490.800000      2494.400000      2498.000000      2501.200000      2504.400000      2507.400000      2510.200000      2513.000000      2515.800000      2518.600000      2522.000000      2526.000000      2530.000000      2533.200000      2536.400000      2539.600000      2542.800000      2546.000000      2549.200000      2552.400000      2555.800000      2559.400000      2563.000000      2567.000000      2571.000000      2574.800000      2578.400000      2582.000000      2585.200000      2588.400000      2591.400000      2594.200000      2597.000000      2599.800000      2602.600000      2605.200000      2607.600000      2610.000000      2606.800000      2603.600000      2597.400000      2588.200000      2579.000000      2579.000000      2579.000000      2579.600000      2580.800000      2582.000000      2582.000000      2582.000000      2581.600000      2580.800000      2580.000000      2578.800000      2577.600000      2578.070000      2580.200000      2582.340000      2581.800000      2581.270000      2574.090000      2560.270000      2546.450000      2536.770000      2527.090000      2516.110000      2503.820000      2491.540000      2466.620000      2441.710000      2424.440000      2414.810000      2405.190000      2387.440000      2369.690000      2356.560000      2348.050000      2339.550000      2333.060000      2326.570000      2321.170000      2316.880000      2312.580000      2307.240000      2301.900000      2298.100000      2295.850000      2293.590000      2289.480000      2285.370000      2281.490000      2277.820000      2274.160000      2265.000000      2255.830000      2249.780000      2246.840000      2243.900000      2238.890000      2233.880000      2226.600000      2217.050000      2207.490000      2207.970000      2208.450000      2207.640000      2205.550000      2203.450000      2201.320000      2199.190000      2199.530000      2202.320000      2205.110000      2207.780000      2210.450000      2211.970000      2212.350000      2212.730000      2214.020000      2215.310000      2216.430000      2217.400000      2218.370000      2219.270000      2220.180000      2220.790000      2221.100000      2221.410000      2220.890000      2220.380000      2220.880000      2222.390000      2223.900000      2224.130000      2224.360000      2225.950000      2228.910000      2231.870000      2236.670000      2241.470000      2246.170000      2250.780000      2255.390000      2260.560000      2265.730000      2271.610000      2278.190000      2284.770000      2289.630000      2294.500000      2301.290000      2310.000000      2318.720000      2327.790000      2336.860000      2345.930000      2354.980000      2364.030000      2372.690000      2381.350000      2389.430000      2396.940000      2404.450000      2411.400000      2418.350000      2422.930000
2458.000000      2461.600000      2465.200000      2468.800000      2472.200000      2475.600000      2479.200000      2482.800000      2486.400000      2490.200000      2494.000000      2497.600000      2501.200000      2504.400000      2507.600000      2510.600000      2513.400000      2517.000000      2519.800000      2523.000000      2526.800000      2530.800000      2534.000000      2537.200000      2540.200000      2543.200000      2546.400000      2549.200000      2552.400000      2555.800000      2559.400000      2563.000000      2566.600000      2570.600000      2574.400000      2578.000000      2581.600000      2584.800000      2588.000000      2590.800000      2593.400000      2596.200000      2598.200000      2601.000000      2603.800000      2606.400000      2608.800000      2608.400000      2605.200000      2598.800000      2589.400000      2580.200000      2579.000000      2579.000000      2579.000000      2579.600000      2580.800000      2581.600000      2581.600000      2581.600000      2581.200000      2580.400000      2579.600000      2578.400000      2578.520000      2580.310000      2582.440000      2581.970000      2581.440000      2576.100000      2564.130000      2550.310000      2536.450000      2526.770000      2511.470000      2494.860000      2482.580000      2467.820000      2442.910000      2425.970000      2416.690000      2407.060000      2392.840000      2375.090000      2361.060000      2351.650000      2343.150000      2337.000000      2330.510000      2324.870000      2320.320000      2316.030000      2309.230000      2303.890000      2300.220000      2298.100000      2295.850000      2292.130000      2288.020000      2282.550000      2277.300000      2273.640000      2268.260000      2259.090000      2253.160000      2250.330000      2247.390000      2238.700000      2233.690000      2230.390000      2224.830000      2215.270000      2213.790000      2214.270000      2214.340000      2213.130000      2211.040000      2209.450000      2207.330000      2205.900000      2206.930000      2209.720000      2210.650000      2213.320000      2215.050000      2215.630000      2216.010000      2216.780000      2218.070000      2219.090000      2219.950000      2220.910000      2222.050000      2222.960000      2223.860000      2224.470000      2224.780000      2224.910000      2224.400000      2225.420000      2227.450000      2228.960000      2230.350000      2230.580000      2231.910000      2234.600000      2237.560000      2242.150000      2246.950000      2251.770000      2256.500000      2261.110000      2266.190000      2271.360000      2275.940000      2281.230000      2287.810000      2292.830000      2297.690000      2304.430000      2313.100000      2321.810000      2330.900000      2339.980000      2348.360000      2356.730000      2365.790000      2374.790000      2383.450000      2391.360000      2398.700000      2406.210000      2410.320000      2417.270000      2424.210000
2457.400000      2461.200000      2464.800000      2468.400000      2471.800000      2475.000000      2478.400000      2482.000000      2485.600000      2489.400000      2493.400000      2497.200000      2500.800000      2504.400000      2507.600000      2510.800000      2513.800000      2517.400000      2521.000000      2524.200000      2527.800000      2531.600000      2534.800000      2538.000000      2541.000000      2543.800000      2546.800000      2549.600000      2552.400000      2555.800000      2559.400000      2563.000000      2566.600000      2570.200000      2574.000000      2577.600000      2581.200000      2584.400000      2587.600000      2590.400000      2592.800000      2595.400000      2597.400000      2599.400000      2602.200000      2605.000000      2607.600000      2607.200000      2606.800000      2600.400000      2590.800000      2581.400000      2580.200000      2579.000000      2579.000000      2579.000000      2579.600000      2580.400000      2581.200000      2581.200000      2581.200000      2580.800000      2580.000000      2579.200000      2579.320000      2580.760000      2582.550000      2582.080000      2581.600000      2576.270000      2566.140000      2554.170000      2540.310000      2526.450000      2511.150000      2490.220000      2473.610000      2458.860000      2444.110000      2427.170000      2418.220000      2408.930000      2394.710000      2380.490000      2366.460000      2356.150000      2346.750000      2340.600000      2334.450000      2328.810000      2324.020000      2319.480000      2312.680000      2305.880000      2302.210000      2300.220000      2298.100000      2294.380000      2290.660000      2285.190000      2278.370000      2273.120000      2267.740000      2262.350000      2256.420000      2253.710000      2250.880000      2242.190000      2233.490000      2230.200000      2228.620000      2223.050000      2221.570000      2220.080000      2220.160000      2219.840000      2218.630000      2217.040000      2215.460000      2214.030000      2213.300000      2214.330000      2215.270000      2216.200000      2217.930000      2218.710000      2219.300000      2220.070000      2220.830000      2221.850000      2222.600000      2223.460000      2224.600000      2225.740000      2226.640000      2227.550000      2228.150000      2228.290000      2228.420000      2229.440000      2231.990000      2234.030000      2235.420000      2236.800000      2238.130000      2240.560000      2243.250000      2247.840000      2252.430000      2257.250000      2262.100000      2266.830000      2271.910000      2276.980000      2281.560000      2285.560000      2290.840000      2295.870000      2300.890000      2307.630000      2316.240000      2324.900000      2334.000000      2343.090000      2351.470000      2359.170000      2367.540000      2376.550000      2385.550000      2393.460000      2400.630000      2407.970000      2412.080000      2416.190000      2423.130000
